ply
format ascii 1.0
element vertex 1218
property float x
property float y
property float z
property uchar red
property uchar green
property uchar blue
end_header
-11.294118 0.294118 -30.117647 42 52 61
-11.194139 0.293040 -30.007326 40 51 60
-11.875000 0.312500 -32.000000 40 52 60
-9.333333 0.246914 -25.283951 40 53 60
-9.142858 0.243161 -24.899696 41 54 61
-9.149847 0.244648 -25.051989 40 54 59
-11.022223 0.296296 -30.340740 39 54 59
-11.562500 0.312500 -32.000000 39 54 59
-11.500000 0.312500 -32.000000 41 55 60
-11.437500 0.312500 -32.000000 41 55 60
-11.375000 0.312500 -32.000000 40 54 59
-11.312500 0.312500 -32.000000 39 52 58
-11.250000 0.312500 -32.000000 40 52 57
-11.187500 0.312500 -32.000000 41 53 60
-11.125000 0.312500 -32.000000 35 48 58
-11.062500 0.312500 -32.000000 37 53 63
-10.546817 0.299625 -30.681648 36 54 60
-10.294118 0.294118 -30.117647 33 55 60
-10.160583 0.291971 -29.897810 32 51 57
-10.625000 0.312500 -32.000000 77 69 67
-10.562500 0.312500 -32.000000 113 99 82
-10.500000 0.312500 -32.000000 128 104 65
-9.823529 0.294118 -30.117647 134 109 54
-9.728938 0.293040 -30.007326 132 107 32
-9.635036 0.291971 -29.897810 122 103 28
-9.507246 0.289855 -29.681160 115 103 29
-9.415162 0.288809 -29.574007 111 104 41
-9.323741 0.287770 -29.467627 110 105 45
-9.576208 0.297398 -30.453531 116 107 39
-10.000000 0.312500 -32.000000 119 108 36
-9.492537 0.298507 -30.567163 119 108 39
-9.397770 0.297398 -30.453531 117 105 38
-9.269373 0.295203 -30.228783 115 103 36
-9.176471 0.294118 -30.117647 114 102 36
-8.953069 0.288809 -29.574007 114 100 36
-8.706714 0.282686 -28.946997 115 101 38
-8.589474 0.280702 -28.743860 117 103 41
-8.533334 0.280702 -28.743860 118 104 43
-8.447553 0.279720 -28.643356 117 103 42
-8.391608 0.279720 -28.643356 116 102 40
-9.187500 0.312500 -32.000000 116 105 41
-9.125000 0.312500 -32.000000 117 105 41
-9.062500 0.312500 -32.000000 116 104 40
-9.000000 0.312500 -32.000000 118 104 41
-8.937500 0.312500 -32.000000 119 105 41
-8.875000 0.312500 -32.000000 119 105 42
-8.812500 0.312500 -32.000000 118 104 41
-8.750000 0.312500 -32.000000 118 106 42
-8.687500 0.312500 -32.000000 118 107 43
-8.625000 0.312500 -32.000000 118 107 43
-8.562500 0.312500 -32.000000 117 106 42
-8.500000 0.312500 -32.000000 119 108 44
-8.437500 0.312500 -32.000000 120 109 45
-8.375000 0.312500 -32.000000 119 109 46
-8.312500 0.312500 -32.000000 119 109 47
-8.250000 0.312500 -32.000000 118 108 46
-8.187500 0.312500 -32.000000 118 108 46
-8.125000 0.312500 -32.000000 118 108 45
-8.062500 0.312500 -32.000000 121 108 48
-8.000000 0.312500 -32.000000 127 109 51
-7.937500 0.312500 -32.000000 127 107 48
-7.875000 0.312500 -32.000000 125 110 45
-7.812500 0.312500 -32.000000 124 113 41
-7.750000 0.312500 -32.000000 121 112 38
-7.687500 0.312500 -32.000000 120 114 38
-7.338346 0.300752 -30.796993 122 114 42
-7.065693 0.291971 -29.897810 119 110 42
-6.981818 0.290909 -29.789091 125 114 51
-6.680702 0.280702 -28.743860 125 114 51
-6.251656 0.264901 -27.125828 125 112 54
-6.522648 0.278746 -28.543554 120 106 50
-6.489511 0.279720 -28.643356 126 113 58
-6.548043 0.284698 -29.153025 119 109 50
-6.584837 0.288809 -29.574007 118 112 47
-7.000000 0.312500 -32.000000 108 106 37
-6.553505 0.295203 -30.228783 119 116 56
-6.470588 0.294118 -30.117647 111 108 56
-6.388278 0.293040 -30.007326 70 68 21
-6.306570 0.291971 -29.897810 54 53 16
-6.248175 0.291971 -29.897810 63 62 35
-0.980392 0.098039 -10.039216 21 20 0
-0.958435 0.097800 -10.014670 22 19 1
-0.938875 0.097800 -10.014670 34 30 13
-2.000000 0.312500 -32.000000 25 27 16
-1.937500 0.312500 -32.000000 24 27 15
-1.875000 0.312500 -32.000000 23 26 16
-1.500000 0.312500 -32.000000 37 43 9
-1.437500 0.312500 -32.000000 44 48 24
-1.375000 0.312500 -32.000000 38 40 28
-1.312500 0.312500 -32.000000 25 28 20
-0.173285 0.057762 -5.914802 32 36 29
-0.161151 0.057554 -5.893525 30 36 27
-0.149425 0.057471 -5.885057 17 26 8
-0.137931 0.057471 -5.885057 16 25 4
-0.126528 0.057513 -5.889288 16 23 8
-0.175824 0.175824 -18.004396 21 21 14
-0.140659 0.175824 -18.004396 21 21 12
-0.105495 0.175824 -18.004396 18 21 10
-0.070485 0.176211 -18.044052 17 23 10
-0.035242 0.176211 -18.044052 19 27 13
0.000000 0.130719 -13.385621 21 33 19
0.025890 0.129450 -13.255664 20 33 20
0.750000 0.312500 -32.000000 33 29 11
0.812500 0.312500 -32.000000 49 43 21
0.875000 0.312500 -32.000000 60 51 25
3.562500 0.312500 -32.000000 120 105 40
3.625000 0.312500 -32.000000 119 104 38
3.687500 0.312500 -32.000000 128 115 47
3.750000 0.312500 -32.000000 125 112 44
3.812500 0.312500 -32.000000 122 110 42
3.875000 0.312500 -32.000000 122 112 43
3.573883 0.274914 -28.151203 116 110 38
3.531773 0.267559 -27.397993 117 109 39
3.646259 0.272109 -27.863945 119 110 42
3.713310 0.273038 -27.959044 120 111 44
3.820069 0.276817 -28.346022 121 111 44
3.888889 0.277778 -28.444445 120 109 43
4.101083 0.288809 -29.574007 121 109 43
4.235294 0.294118 -30.117647 122 110 44
4.294117 0.294118 -30.117647 123 111 45
4.352941 0.294118 -30.117647 120 107 40
4.347826 0.289855 -29.681160 120 105 38
4.405797 0.289855 -29.681160 126 111 44
4.463768 0.289855 -29.681160 124 109 42
4.394366 0.281690 -28.845070 131 115 47
4.613139 0.291971 -29.897810 127 110 42
4.671533 0.291971 -29.897810 129 113 45
4.729927 0.291971 -29.897810 128 111 40
4.788321 0.291971 -29.897810 134 117 44
4.846715 0.291971 -29.897810 124 109 35
4.834532 0.287770 -29.467627 125 111 49
4.722222 0.277778 -28.444445 96 84 36
1.590751 0.092486 -9.470520 49 38 1
1.611111 0.092593 -9.481482 34 23 1
1.629630 0.092593 -9.481482 37 26 7
1.113924 0.056259 -5.760900 31 23 12
1.124385 0.056219 -5.756852 30 23 15
1.136428 0.056259 -5.760900 25 19 12
1.192335 0.056778 -5.814053 66 76 74
1.204545 0.056818 -5.818182 64 79 77
1.220242 0.057021 -5.838917 66 81 80
1.231646 0.057021 -5.838917 66 82 83
1.248389 0.057266 -5.863994 67 81 83
1.254455 0.057021 -5.838917 69 81 85
1.264957 0.056980 -5.834758 70 80 85
1.264644 0.056457 -5.781228 72 81 87
1.259930 0.055749 -5.708711 67 77 83
1.277311 0.056022 -5.736695 66 77 82
1.292135 0.056180 -5.752809 66 77 82
1.302456 0.056140 -5.748772 67 78 83
1.312763 0.056101 -5.744740 68 79 83
1.321204 0.055983 -5.732680 68 79 83
1.333333 0.056022 -5.736695 68 78 83
7.625000 0.312500 -32.000000 68 77 82
7.687500 0.312500 -32.000000 68 77 83
7.750000 0.312500 -32.000000 66 76 83
7.812500 0.312500 -32.000000 65 75 83
7.875000 0.312500 -32.000000 65 75 82
7.937500 0.312500 -32.000000 63 75 81
8.000000 0.312500 -32.000000 63 77 80
8.062500 0.312500 -32.000000 61 76 79
8.125000 0.312500 -32.000000 62 76 79
8.187500 0.312500 -32.000000 65 76 80
8.250000 0.312500 -32.000000 67 76 81
8.312500 0.312500 -32.000000 69 77 82
8.375000 0.312500 -32.000000 69 75 81
8.437500 0.312500 -32.000000 69 74 80
8.500000 0.312500 -32.000000 73 79 84
8.562500 0.312500 -32.000000 70 77 79
8.269663 0.299625 -30.681648 68 76 77
8.116788 0.291971 -29.897810 68 78 76
7.859649 0.280702 -28.743860 66 79 76
7.860627 0.278746 -28.543554 62 79 72
7.780822 0.273973 -28.054794 63 80 72
7.782313 0.272109 -27.863945 67 83 74
7.783784 0.270270 -27.675676 66 82 73
7.733333 0.266667 -27.306667 64 79 73
7.684210 0.263158 -26.947369 65 80 75
7.711475 0.262295 -26.859016 67 82 77
7.614148 0.257235 -26.340836 68 81 79
7.544304 0.253165 -25.924051 67 80 80
7.594937 0.253165 -25.924051 67 78 81
7.768489 0.257235 -26.340836 68 79 83
7.845161 0.258065 -26.425806 67 78 83
7.896774 0.258065 -26.425806 67 76 82
7.822222 0.253968 -26.006350 67 76 82
7.848101 0.253165 -25.924051 68 77 83
7.873817 0.252366 -25.842272 69 78 84
8.126985 0.253968 -26.006350 70 78 84
8.177778 0.253968 -26.006350 67 76 82
8.334405 0.257235 -26.340836 65 76 81
8.385852 0.257235 -26.340836 65 77 81
8.437299 0.257235 -26.340836 67 78 81
8.461538 0.256410 -26.256411 67 78 80
8.300000 0.250000 -25.600000 68 79 81
8.298137 0.248447 -25.440994 69 80 82
8.220183 0.244648 -25.051989 66 77 79
8.047619 0.238095 -24.380953 66 77 79
8.000000 0.235294 -24.094118 70 82 82
8.023460 0.234604 -24.023460 70 81 81
8.070381 0.234604 -24.023460 69 79 80
8.117302 0.234604 -24.023460 69 81 79
8.261127 0.237389 -24.308605 65 78 75
8.459214 0.241692 -24.749245 68 80 79
8.900000 0.250000 -25.600000 67 81 80
8.398827 0.234604 -24.023460 70 83 82
8.158640 0.226629 -23.206799 69 80 81
8.203966 0.226629 -23.206799 72 83 85
8.272727 0.227273 -23.272728 69 80 83
8.583091 0.233236 -23.883383 64 72 76
8.629738 0.233236 -23.883383 63 71 75
8.701755 0.233918 -23.953217 66 72 78
8.852071 0.236686 -24.236687 72 76 81
9.226994 0.245399 -25.128834 76 81 85
9.382716 0.246914 -25.283951 74 82 84
9.345566 0.244648 -25.051989 71 82 83
9.142858 0.238095 -24.380953 67 81 81
9.190476 0.238095 -24.380953 65 81 79
9.195402 0.229885 -23.540230 69 81 78
9.084745 0.225989 -23.141243 70 84 79
9.104225 0.225352 -23.076056 65 82 76
9.149296 0.225352 -23.076056 67 82 80
9.168539 0.224719 -23.011236 71 85 86
9.239436 0.225352 -23.076056 69 83 86
9.232493 0.224090 -22.946779 68 80 86
9.225627 0.222841 -22.818941 71 81 89
9.043478 0.217391 -22.260870 71 80 88
8.663213 0.207254 -21.222797 71 79 86
8.704663 0.207254 -21.222797 76 82 88
9.124325 0.216216 -22.140541 77 85 88
9.293151 0.219178 -22.443836 75 84 83
9.737143 0.228571 -23.405714 74 86 81
9.329700 0.217984 -22.321526 75 87 83
9.247312 0.215054 -22.021505 72 86 81
9.216000 0.213333 -21.845333 71 85 80
9.409214 0.216802 -22.200542 73 84 85
6.903108 0.146252 -14.976234 81 99 104
6.919708 0.145985 -14.948905 81 99 103
6.948905 0.145985 -14.948905 78 95 99
9.441976 0.197531 -20.227161 75 90 94
9.504951 0.198020 -20.277227 82 97 102
9.615960 0.199501 -20.428928 77 92 98
9.680000 0.200000 -20.480000 78 93 100
9.720000 0.200000 -20.480000 81 94 103
9.760000 0.200000 -20.480000 80 93 103
9.849246 0.201005 -20.582914 80 91 102
9.914358 0.201511 -20.634760 79 90 100
12.171779 0.245399 -25.128834 86 96 106
12.607594 0.253165 -25.924051 82 92 101
12.269938 0.245399 -25.128834 79 91 98
11.988060 0.238806 -24.453732 79 91 98
12.035821 0.238806 -24.453732 79 92 98
12.083582 0.238806 -24.453732 80 94 99
12.621118 0.248447 -25.440994 79 94 98
11.850144 0.230548 -23.608068 82 94 97
12.000000 0.232558 -23.813953 82 94 98
11.942363 0.230548 -23.608068 84 95 99
16.437500 0.312500 -32.000000 83 95 102
16.500000 0.312500 -32.000000 84 94 101
16.875000 0.312500 -32.000000 82 94 102
14.405315 0.265781 -27.215946 78 91 99
14.458471 0.265781 -27.215946 78 91 100
14.511628 0.265781 -27.215946 85 96 106
17.312500 0.312500 -32.000000 85 90 95
14.339622 0.251572 -25.761005 81 91 103
14.389937 0.251572 -25.761005 79 91 105
14.485805 0.252366 -25.842272 80 92 105
15.157895 0.263158 -26.947369 80 92 106
15.210526 0.263158 -26.947369 78 90 103
15.263158 0.263158 -26.947369 76 90 100
15.315789 0.263158 -26.947369 75 92 95
15.470199 0.264901 -27.125828 77 92 97
15.837838 0.270270 -27.675676 75 88 95
16.333334 0.277778 -28.444445 72 84 96
16.388889 0.277778 -28.444445 73 83 99
-11.040000 0.213333 -27.306667 39 53 55
-8.451283 0.164103 -21.005129 40 53 55
-12.148149 0.237037 -30.340740 41 53 57
-12.044280 0.236162 -30.228783 42 53 57
-12.029630 0.237037 -30.340740 41 50 57
-11.678832 0.233577 -29.897810 43 52 60
-11.536232 0.231884 -29.681160 42 49 57
-11.395683 0.230216 -29.467627 43 49 58
-11.177305 0.226950 -29.049644 44 51 61
-11.200000 0.228571 -29.257143 44 51 61
-11.345454 0.232727 -29.789091 46 53 63
-11.411765 0.235294 -30.117647 43 50 59
-11.352942 0.235294 -30.117647 43 52 61
-11.294118 0.235294 -30.117647 42 52 61
-11.812500 0.250000 -32.000000 40 53 60
-11.140740 0.237037 -30.340740 41 54 61
-11.081482 0.237037 -30.340740 40 54 59
-11.625000 0.250000 -32.000000 39 54 59
-11.562500 0.250000 -32.000000 39 54 59
-11.500000 0.250000 -32.000000 41 55 60
-11.437500 0.250000 -32.000000 41 55 60
-10.988679 0.241509 -30.913208 40 54 59
-11.312500 0.250000 -32.000000 39 52 58
-11.250000 0.250000 -32.000000 39 51 57
-11.187500 0.250000 -32.000000 39 51 58
-11.125000 0.250000 -32.000000 35 48 57
-10.567164 0.238806 -30.567163 36 50 61
-10.352942 0.235294 -30.117647 36 52 61
-10.218978 0.233577 -29.897810 35 52 61
-10.160583 0.233577 -29.897810 34 48 53
-10.139194 0.234432 -30.007326 34 48 53
-9.971014 0.231884 -29.681160 35 45 46
-9.985401 0.233577 -29.897810 63 67 59
-10.187266 0.239700 -30.681648 103 99 78
-10.562500 0.250000 -32.000000 112 102 68
-10.067416 0.239700 -30.681648 114 96 47
-9.823529 0.235294 -30.117647 117 96 41
-9.693431 0.233577 -29.897810 123 99 35
-9.635036 0.233577 -29.897810 121 100 35
-9.507246 0.231884 -29.681160 115 99 31
-9.449275 0.231884 -29.681160 113 102 35
-9.391304 0.231884 -29.681160 117 108 41
-9.563910 0.240602 -30.796993 118 106 39
-9.432836 0.238806 -30.567163 118 105 39
-9.338290 0.237918 -30.453531 116 102 38
-9.176471 0.235294 -30.117647 113 100 37
-9.084249 0.234432 -30.007326 114 102 37
-8.895307 0.231047 -29.574007 115 103 39
-8.619719 0.225352 -28.845070 116 103 41
-8.563380 0.225352 -28.845070 117 104 43
-8.447553 0.223776 -28.643356 117 105 42
-9.375000 0.250000 -32.000000 115 103 39
-9.312500 0.250000 -32.000000 116 103 40
-9.250000 0.250000 -32.000000 116 103 40
-9.187500 0.250000 -32.000000 118 104 41
-9.125000 0.250000 -32.000000 118 105 42
-9.062500 0.250000 -32.000000 118 104 40
-9.000000 0.250000 -32.000000 121 106 41
-8.937500 0.250000 -32.000000 122 107 41
-8.875000 0.250000 -32.000000 117 102 36
-8.812500 0.250000 -32.000000 112 97 32
-8.750000 0.250000 -32.000000 113 98 33
-8.687500 0.250000 -32.000000 119 105 41
-8.625000 0.250000 -32.000000 122 109 43
-8.562500 0.250000 -32.000000 119 107 42
-8.500000 0.250000 -32.000000 123 110 47
-8.437500 0.250000 -32.000000 122 109 46
-8.375000 0.250000 -32.000000 121 108 45
-8.312500 0.250000 -32.000000 120 107 45
-8.250000 0.250000 -32.000000 119 106 44
-8.187500 0.250000 -32.000000 120 107 46
-8.125000 0.250000 -32.000000 122 109 47
-8.062500 0.250000 -32.000000 125 111 50
-8.000000 0.250000 -32.000000 125 109 49
-7.937500 0.250000 -32.000000 121 105 45
-7.875000 0.250000 -32.000000 120 108 43
-7.812500 0.250000 -32.000000 121 112 43
-7.750000 0.250000 -32.000000 121 113 42
-7.315985 0.237918 -30.453531 121 114 41
-7.176471 0.235294 -30.117647 119 112 41
-7.040000 0.232727 -29.789091 113 105 37
-6.736842 0.224561 -28.743860 118 107 42
-6.346667 0.213333 -27.306667 118 107 42
-6.129870 0.207792 -26.597403 119 106 45
-6.077922 0.207792 -26.597403 121 108 49
-6.489511 0.223776 -28.643356 123 111 53
-6.548043 0.227758 -29.153025 123 113 53
-6.616541 0.240602 -30.796993 75 73 27
-6.411765 0.235294 -30.117647 54 52 11
-6.352941 0.235294 -30.117647 58 56 24
-6.364312 0.237918 -30.453531 54 52 28
-0.981949 0.077016 -9.858003 64 62 43
-0.966184 0.077295 -9.893720 4 1 0
-0.948005 0.077388 -9.905684 31 26 11
-0.938875 0.078240 -10.014670 20 14 0
-0.919315 0.078240 -10.014670 31 24 9
-1.875000 0.250000 -32.000000 24 25 17
-1.625000 0.250000 -32.000000 48 54 17
-1.562500 0.250000 -32.000000 50 56 20
-1.500000 0.250000 -32.000000 39 45 10
-1.437500 0.250000 -32.000000 36 42 16
-1.375000 0.250000 -32.000000 26 30 14
-1.312500 0.250000 -32.000000 18 22 9
-0.178571 0.142857 -18.285715 20 20 13
-0.142222 0.142222 -18.204445 18 20 10
-0.106667 0.142222 -18.204445 16 19 8
-0.071111 0.142222 -18.204445 17 24 9
0.750000 0.250000 -32.000000 44 40 20
0.812500 0.250000 -32.000000 56 50 27
0.875000 0.250000 -32.000000 59 50 24
3.250000 0.250000 -32.000000 126 111 46
3.375000 0.250000 -32.000000 126 111 45
3.437500 0.250000 -32.000000 125 110 44
3.500000 0.250000 -32.000000 122 107 41
3.562500 0.250000 -32.000000 120 105 39
3.625000 0.250000 -32.000000 121 106 39
3.687500 0.250000 -32.000000 130 115 48
3.750000 0.250000 -32.000000 127 112 45
3.812500 0.250000 -32.000000 125 111 45
3.466667 0.213333 -27.306667 120 111 43
3.520000 0.213333 -27.306667 118 109 41
3.585284 0.214047 -27.397993 121 112 45
3.726027 0.219178 -28.054794 123 114 47
3.833333 0.222222 -28.444445 124 114 47
3.957597 0.226148 -28.946997 122 112 45
4.101083 0.231047 -29.574007 120 109 43
4.235294 0.235294 -30.117647 123 111 44
4.309963 0.236162 -30.228783 124 112 44
4.352941 0.235294 -30.117647 131 118 50
4.444445 0.237037 -30.340740 127 112 45
4.503704 0.237037 -30.340740 128 113 46
4.812500 0.250000 -32.000000 125 109 42
4.875000 0.250000 -32.000000 128 112 45
4.937500 0.250000 -32.000000 123 105 39
4.671533 0.233577 -29.897810 127 109 43
5.062500 0.250000 -32.000000 127 110 41
5.125000 0.250000 -32.000000 134 119 48
4.955224 0.238806 -30.567163 120 107 37
4.682927 0.222997 -28.543554 103 91 32
1.570439 0.073903 -9.459584 61 51 5
1.588915 0.073903 -9.459584 27 17 0
1.609249 0.073988 -9.470520 31 20 0
1.629630 0.074074 -9.481482 37 27 10
1.099150 0.045326 -5.801700 29 22 13
1.000000 0.040816 -5.224490 30 25 13
1.010204 0.040816 -5.224490 26 21 9
1.121233 0.044849 -5.740715 26 20 11
1.141243 0.045198 -5.785311 14 9 3
1.240488 0.045944 -5.880833 67 81 83
1.256245 0.045682 -5.847252 70 81 84
1.255124 0.045230 -5.789399 72 81 86
1.250523 0.044662 -5.716678 74 82 87
1.259053 0.044568 -5.704735 71 79 84
1.269311 0.044537 -5.700766 70 79 84
1.280445 0.044537 -5.700766 70 79 84
1.298810 0.044787 -5.732680 69 80 84
1.309091 0.044755 -5.728672 70 79 84
1.320280 0.044755 -5.728672 70 79 84
7.625000 0.250000 -32.000000 69 80 84
7.687500 0.250000 -32.000000 68 79 83
7.750000 0.250000 -32.000000 66 77 82
7.812500 0.250000 -32.000000 64 75 80
7.875000 0.250000 -32.000000 63 74 79
7.937500 0.250000 -32.000000 62 74 78
8.000000 0.250000 -32.000000 66 78 81
8.062500 0.250000 -32.000000 66 79 81
8.125000 0.250000 -32.000000 66 77 80
8.187500 0.250000 -32.000000 67 77 80
8.250000 0.250000 -32.000000 67 76 80
8.312500 0.250000 -32.000000 70 77 81
8.375000 0.250000 -32.000000 70 76 82
8.437500 0.250000 -32.000000 72 77 83
8.180451 0.240602 -30.796993 73 78 83
8.562500 0.250000 -32.000000 70 76 80
8.269663 0.239700 -30.681648 69 76 79
8.237037 0.237037 -30.340740 68 78 79
7.943263 0.226950 -29.049644 67 79 78
7.915790 0.224561 -28.743860 63 78 74
7.861592 0.221453 -28.346022 64 79 74
7.835617 0.219178 -28.054794 67 82 76
7.705686 0.214047 -27.397993 66 81 75
7.733333 0.213333 -27.306667 66 79 76
7.684210 0.210526 -26.947369 67 80 78
7.711475 0.209836 -26.859016 68 81 79
7.614148 0.205788 -26.340836 69 82 82
7.592357 0.203822 -26.089172 69 80 82
7.619048 0.203175 -26.006350 68 79 82
7.844156 0.207792 -26.597403 68 79 83
7.921824 0.208469 -26.684038 67 78 83
7.948052 0.207792 -26.597403 66 77 81
7.948387 0.206452 -26.425806 66 77 81
7.898089 0.203822 -26.089172 67 78 82
8.126985 0.203175 -26.006350 67 76 81
8.177778 0.203175 -26.006350 66 75 80
8.281150 0.204473 -26.172523 65 76 80
8.385852 0.205788 -26.340836 65 77 81
8.437299 0.205788 -26.340836 67 78 81
8.488746 0.205788 -26.340836 67 78 80
8.326018 0.200627 -25.680250 68 79 81
8.323988 0.199377 -25.520248 68 80 82
8.000000 0.190476 -24.380953 65 77 79
7.906433 0.187135 -23.953217 66 77 79
7.816092 0.183908 -23.540230 70 81 83
7.862069 0.183908 -23.540230 71 81 83
8.070381 0.187683 -24.023460 69 79 81
8.117302 0.187683 -24.023460 70 81 82
8.410876 0.193353 -24.749245 65 78 78
8.950000 0.200000 -25.600000 70 81 83
8.158640 0.181303 -23.206799 67 78 80
8.066853 0.178273 -22.818941 70 81 84
8.134078 0.178771 -22.882681 70 81 83
8.341881 0.182336 -23.339031 72 82 83
8.583091 0.186589 -23.883383 74 84 85
8.629738 0.186589 -23.883383 76 84 86
8.701755 0.187135 -23.953217 76 83 86
8.852071 0.189349 -24.236687 69 74 78
9.226994 0.196319 -25.128834 75 80 83
9.382716 0.197531 -25.283951 72 80 82
9.260606 0.193939 -24.824242 69 80 81
9.225225 0.192192 -24.600601 67 80 80
9.190476 0.190476 -24.380953 65 80 78
9.293413 0.191617 -24.526947 65 78 76
9.392330 0.188791 -24.165192 71 77 77
9.039548 0.180791 -23.141243 69 79 77
9.084745 0.180791 -23.141243 70 82 78
9.104225 0.180282 -23.076056 66 80 75
9.175141 0.180791 -23.141243 70 83 82
9.194366 0.180282 -23.076056 72 84 87
9.265536 0.180791 -23.141243 71 82 86
9.043478 0.173913 -22.260870 70 80 89
8.663213 0.165803 -21.222797 71 80 87
8.704663 0.165803 -21.222797 75 83 88
9.124325 0.172973 -22.140541 77 85 87
9.293151 0.175342 -22.443836 75 85 83
9.380822 0.175342 -22.443836 74 86 81
9.247312 0.172043 -22.021505 70 84 78
9.216000 0.170667 -21.845333 67 82 77
9.258667 0.170667 -21.845333 67 80 78
6.919708 0.116788 -14.948905 78 97 103
6.923636 0.116364 -14.894546 76 95 100
9.465346 0.158416 -20.277227 74 92 96
9.576060 0.159601 -20.428928 78 94 99
9.640000 0.160000 -20.480000 74 89 94
9.704261 0.160401 -20.531328 73 89 95
9.768845 0.160804 -20.582914 76 91 98
9.833754 0.161209 -20.634760 75 88 96
9.949239 0.162437 -20.791878 76 89 98
9.989848 0.162437 -20.791878 77 88 99
10.107417 0.163683 -20.951406 80 88 100
9.920000 0.160000 -20.480000 81 88 99
10.060606 0.161616 -20.686869 80 90 99
11.988060 0.191045 -24.453732 81 93 99
12.035821 0.191045 -24.453732 81 95 99
12.192771 0.192771 -24.674698 79 94 97
12.504616 0.196923 -25.206154 77 94 95
12.070175 0.187135 -23.953217 81 93 97
12.081633 0.186589 -23.883383 83 93 98
16.500000 0.250000 -32.000000 83 93 100
16.562500 0.250000 -32.000000 82 94 99
16.625000 0.250000 -32.000000 80 95 98
16.875000 0.250000 -32.000000 82 96 100
14.501672 0.214047 -27.397993 80 93 99
14.802721 0.217687 -27.863945 81 93 100
17.312500 0.250000 -32.000000 88 90 95
17.375000 0.250000 -32.000000 93 95 99
16.000000 0.227758 -29.153025 89 95 96
14.100000 0.200000 -25.600000 88 95 98
14.150000 0.200000 -25.600000 84 92 102
14.200000 0.200000 -25.600000 84 92 106
14.339622 0.201258 -25.761005 82 91 106
14.389937 0.201258 -25.761005 80 90 106
14.485805 0.201893 -25.842272 78 89 103
14.536278 0.201893 -25.842272 77 89 103
14.868167 0.205788 -26.340836 78 89 102
14.919614 0.205788 -26.340836 78 91 101
14.971061 0.205788 -26.340836 72 90 94
15.368421 0.210526 -26.947369 76 91 98
16.109966 0.219931 -28.151203 76 90 99
16.333334 0.222222 -28.444445 74 87 96
16.388889 0.222222 -28.444445 73 84 97
-8.492308 0.123077 -21.005129 39 53 55
-8.451283 0.123077 -21.005129 40 53 55
-12.103321 0.177122 -30.228783 41 53 57
-12.044280 0.177122 -30.228783 42 53 57
-12.029630 0.177778 -30.340740 41 50 57
-11.823529 0.176471 -30.117647 44 53 61
-11.678832 0.175182 -29.897810 43 52 60
-11.578182 0.174545 -29.789091 42 49 57
-11.395683 0.172662 -29.467627 43 49 58
-11.338129 0.172662 -29.467627 44 51 61
-11.280576 0.172662 -29.467627 44 51 61
-11.345454 0.174545 -29.789091 46 53 63
-11.411765 0.176471 -30.117647 45 53 63
-11.352942 0.176471 -30.117647 44 54 63
-11.294118 0.176471 -30.117647 44 54 62
-11.750000 0.187500 -32.000000 41 53 59
-11.687500 0.187500 -32.000000 40 54 59
-11.625000 0.187500 -32.000000 41 56 61
-11.562500 0.187500 -32.000000 41 56 61
-11.500000 0.187500 -32.000000 41 54 60
-11.437500 0.187500 -32.000000 41 53 59
-10.988679 0.181132 -30.913208 40 53 59
-11.312500 0.187500 -32.000000 40 52 57
-11.250000 0.187500 -32.000000 40 51 56
-11.187500 0.187500 -32.000000 39 49 56
-11.125000 0.187500 -32.000000 42 53 61
-10.567164 0.179104 -30.567163 38 50 62
-10.352942 0.176471 -30.117647 33 45 58
-10.294118 0.176471 -30.117647 33 45 58
-10.235294 0.176471 -30.117647 45 54 58
-10.176471 0.176471 -30.117647 45 54 58
-10.080586 0.175824 -30.007326 65 71 61
-10.021978 0.175824 -30.007326 89 92 65
-10.036901 0.177122 -30.228783 112 110 62
-10.562500 0.187500 -32.000000 116 107 52
-10.067416 0.179775 -30.681648 117 100 37
-9.896297 0.177778 -30.340740 118 98 38
-9.693431 0.175182 -29.897810 124 101 42
-9.670330 0.175824 -30.007326 124 102 43
-9.576642 0.175182 -29.897810 119 101 37
-9.483636 0.174545 -29.789091 116 102 31
-9.425454 0.174545 -29.789091 117 106 33
-9.505535 0.177122 -30.228783 116 102 36
-10.000000 0.187500 -32.000000 118 104 41
-9.528090 0.179775 -30.681648 119 105 41
-9.432836 0.179104 -30.567163 118 104 40
-9.338290 0.178439 -30.453531 116 102 39
-9.244445 0.177778 -30.340740 116 102 39
-9.117647 0.176471 -30.117647 117 105 41
-8.895307 0.173285 -29.574007 118 107 43
-8.619719 0.169014 -28.845070 117 106 43
-8.563380 0.169014 -28.845070 118 107 44
-8.447553 0.167832 -28.643356 118 107 43
-9.375000 0.187500 -32.000000 117 105 40
-9.312500 0.187500 -32.000000 118 104 41
-9.250000 0.187500 -32.000000 118 104 41
-9.187500 0.187500 -32.000000 119 105 42
-9.125000 0.187500 -32.000000 119 105 42
-9.062500 0.187500 -32.000000 118 104 40
-9.000000 0.187500 -32.000000 121 106 39
-8.937500 0.187500 -32.000000 121 105 36
-8.875000 0.187500 -32.000000 117 101 33
-8.812500 0.187500 -32.000000 115 99 32
-8.750000 0.187500 -32.000000 117 101 35
-8.687500 0.187500 -32.000000 123 107 41
-8.625000 0.187500 -32.000000 124 109 43
-8.562500 0.187500 -32.000000 121 107 42
-8.500000 0.187500 -32.000000 124 110 46
-8.437500 0.187500 -32.000000 123 109 46
-8.375000 0.187500 -32.000000 123 108 44
-8.312500 0.187500 -32.000000 122 107 44
-8.250000 0.187500 -32.000000 121 107 45
-8.187500 0.187500 -32.000000 123 107 47
-8.125000 0.187500 -32.000000 125 109 49
-8.062500 0.187500 -32.000000 126 110 50
-8.000000 0.187500 -32.000000 122 108 46
-7.937500 0.187500 -32.000000 116 105 42
-7.875000 0.187500 -32.000000 116 107 41
-7.812500 0.187500 -32.000000 118 111 42
-7.750000 0.187500 -32.000000 117 111 41
-7.687500 0.187500 -32.000000 118 113 41
-7.176471 0.176471 -30.117647 117 111 41
-6.760563 0.169014 -28.845070 123 113 46
-6.704226 0.169014 -28.845070 123 113 46
-6.293334 0.160000 -27.306667 123 111 47
-6.545455 0.167832 -28.643356 127 114 52
-6.581560 0.170213 -29.049644 121 109 49
-7.187500 0.187500 -32.000000 123 113 53
-6.812500 0.187500 -32.000000 51 51 20
-6.750000 0.187500 -32.000000 58 58 34
-6.364312 0.178439 -30.453531 24 23 6
-1.019608 0.058824 -10.039216 5 0 0
-0.981949 0.057762 -9.858003 8 1 0
-0.962696 0.057762 -9.858003 19 12 1
-0.946860 0.057971 -9.893720 27 19 6
-1.937500 0.187500 -32.000000 25 23 17
-1.875000 0.187500 -32.000000 25 23 16
-1.812500 0.187500 -32.000000 22 23 10
-1.625000 0.187500 -32.000000 69 76 35
-1.562500 0.187500 -32.000000 66 72 32
-1.500000 0.187500 -32.000000 36 42 4
-1.437500 0.187500 -32.000000 28 34 6
-1.375000 0.187500 -32.000000 19 25 6
-1.312500 0.187500 -32.000000 21 25 10
-1.250000 0.187500 -32.000000 20 23 12
-0.182648 0.109589 -18.703196 19 20 13
-0.142857 0.107143 -18.285715 17 20 10
-0.106667 0.106667 -18.204445 18 23 10
-0.071111 0.106667 -18.204445 19 29 12
0.508834 0.169611 -28.946997 25 26 11
0.565371 0.169611 -28.946997 31 30 12
0.613240 0.167247 -28.543554 48 46 25
0.294028 0.073507 -12.545177 52 47 23
0.314199 0.072508 -12.374622 56 49 24
0.875000 0.187500 -32.000000 58 48 21
3.250000 0.187500 -32.000000 123 108 41
3.312500 0.187500 -32.000000 124 109 41
3.375000 0.187500 -32.000000 125 110 42
3.437500 0.187500 -32.000000 125 110 43
3.500000 0.187500 -32.000000 125 109 42
3.562500 0.187500 -32.000000 124 108 41
3.625000 0.187500 -32.000000 125 109 42
3.687500 0.187500 -32.000000 127 112 45
3.750000 0.187500 -32.000000 125 110 44
3.812500 0.187500 -32.000000 125 110 45
3.875000 0.187500 -32.000000 124 112 47
4.000000 0.187500 -32.000000 122 113 47
3.466667 0.160000 -27.306667 121 112 46
3.520000 0.160000 -27.306667 120 114 47
3.646259 0.163265 -27.863945 121 115 48
3.764706 0.166090 -28.346022 123 115 48
3.887324 0.169014 -28.845070 124 115 48
3.943662 0.169014 -28.845070 121 113 46
4.014134 0.169611 -28.946997 121 112 45
4.056338 0.169014 -28.845070 120 111 42
4.171429 0.171429 -29.257143 121 111 42
3.933555 0.159468 -27.215946 124 112 44
4.460967 0.178439 -30.453531 120 107 39
4.750000 0.187500 -32.000000 123 108 41
4.812500 0.187500 -32.000000 123 107 40
4.875000 0.187500 -32.000000 129 113 47
4.937500 0.187500 -32.000000 126 108 43
5.187500 0.187500 -32.000000 108 98 31
1.551963 0.055427 -9.459584 70 60 5
1.570439 0.055427 -9.459584 32 23 0
1.588915 0.055427 -9.459584 30 21 0
1.607390 0.055427 -9.459584 34 25 9
1.625866 0.055427 -9.459584 28 18 7
1.087819 0.033994 -5.801700 31 20 11
1.009759 0.031230 -5.329864 30 22 12
0.999363 0.030593 -5.221160 32 27 15
1.009560 0.030593 -5.221160 22 18 7
1.019758 0.030593 -5.221160 18 14 5
1.141243 0.033898 -5.785311 6 3 0
1.238784 0.034732 -5.927641 68 81 82
1.240488 0.034458 -5.880833 67 81 83
1.258427 0.033708 -5.752809 74 79 85
1.261689 0.033496 -5.716678 73 79 85
1.269311 0.033403 -5.700766 73 79 85
1.278666 0.033356 -5.692842 72 80 85
1.286209 0.033264 -5.677062 72 80 85
1.302714 0.033403 -5.700766 71 80 85
7.562500 0.187500 -32.000000 64 76 80
7.625000 0.187500 -32.000000 66 78 82
7.687500 0.187500 -32.000000 66 78 82
7.750000 0.187500 -32.000000 65 77 80
7.812500 0.187500 -32.000000 64 76 79
7.875000 0.187500 -32.000000 63 75 79
7.937500 0.187500 -32.000000 63 75 78
8.000000 0.187500 -32.000000 67 78 80
8.062500 0.187500 -32.000000 69 79 80
8.125000 0.187500 -32.000000 70 80 81
8.187500 0.187500 -32.000000 70 78 80
8.250000 0.187500 -32.000000 69 77 80
8.312500 0.187500 -32.000000 70 76 81
8.090566 0.181132 -30.913208 71 77 83
8.120300 0.180451 -30.796993 73 78 84
8.089219 0.178439 -30.453531 71 76 81
8.240602 0.180451 -30.796993 70 75 80
8.269663 0.179775 -30.681648 69 75 80
8.687500 0.187500 -32.000000 68 76 80
8.296296 0.177778 -30.340740 68 78 80
8.000000 0.170213 -29.049644 66 79 79
7.916376 0.167247 -28.543554 66 80 78
7.835617 0.164384 -28.054794 66 81 78
7.705686 0.160535 -27.397993 66 80 76
7.656765 0.158416 -27.036304 66 79 77
7.659017 0.157377 -26.859016 67 79 78
7.661238 0.156352 -26.684038 68 80 80
7.614148 0.154341 -26.340836 69 80 81
7.592357 0.152866 -26.089172 69 80 82
7.667732 0.153355 -26.172523 69 80 83
7.844156 0.155844 -26.597403 69 80 84
7.921824 0.156352 -26.684038 68 79 83
7.948052 0.155844 -26.597403 68 79 83
7.948387 0.154839 -26.425806 67 79 83
7.898089 0.152866 -26.089172 66 78 82
8.366014 0.156863 -26.771242 66 75 80
8.282958 0.154341 -26.340836 66 75 80
8.150944 0.150943 -25.761005 66 77 81
8.150000 0.150000 -25.600000 66 78 82
8.437299 0.154341 -26.340836 68 80 83
8.488746 0.154341 -26.340836 68 80 82
8.352201 0.150943 -25.761005 67 78 81
8.376176 0.150470 -25.680250 69 80 83
7.976261 0.142433 -24.308605 68 79 82
7.906433 0.140351 -23.953217 68 79 82
7.816092 0.137931 -23.540230 73 83 86
7.862069 0.137931 -23.540230 72 81 85
8.117994 0.141593 -24.165192 69 78 82
8.387878 0.145455 -24.824242 72 83 86
8.900000 0.150000 -25.600000 68 79 82
8.950000 0.150000 -25.600000 70 81 84
8.916409 0.148607 -25.362228 66 78 81
8.883435 0.147239 -25.128834 72 83 85
8.134078 0.134078 -22.882681 69 80 81
8.888889 0.144144 -24.600601 69 77 78
8.857142 0.142857 -24.380953 72 79 80
8.984985 0.144144 -24.600601 76 82 83
9.341615 0.149068 -25.440994 72 77 79
9.440994 0.149068 -25.440994 71 79 81
9.260606 0.145455 -24.824242 69 80 81
9.309091 0.145455 -24.824242 68 81 81
9.245509 0.143713 -24.526947 66 81 79
9.293413 0.143713 -24.526947 67 80 78
9.341317 0.143713 -24.526947 68 80 78
9.221902 0.138329 -23.608068 69 78 76
9.241380 0.137931 -23.540230 70 81 77
9.129944 0.135593 -23.141243 67 79 76
9.333333 0.137931 -23.540230 71 82 83
9.249315 0.131507 -22.443836 74 84 85
9.267759 0.131148 -22.382513 74 86 82
9.336987 0.131507 -22.443836 74 88 80
6.923636 0.087273 -14.894546 78 96 100
9.536160 0.119701 -20.428928 78 95 99
9.576060 0.119701 -20.428928 78 94 99
9.640000 0.120000 -20.480000 75 90 95
9.704261 0.120301 -20.531328 76 91 97
9.768845 0.120603 -20.582914 78 92 99
9.833754 0.120907 -20.634760 77 90 97
9.898990 0.121212 -20.686869 79 92 100
9.989848 0.121827 -20.791878 81 93 104
10.107417 0.122762 -20.951406 83 94 105
10.060606 0.121212 -20.686869 82 92 101
10.126582 0.121519 -20.739241 81 91 99
10.141414 0.121212 -20.686869 79 91 97
12.181269 0.145015 -24.749245 78 91 96
12.266666 0.145455 -24.824242 78 90 95
12.621118 0.149068 -25.440994 75 89 92
12.070175 0.140351 -23.953217 81 93 97
12.081633 0.139942 -23.883383 83 94 98
12.163743 0.140351 -23.953217 82 93 97
14.501672 0.160535 -27.397993 85 94 100
14.802721 0.163265 -27.863945 86 95 101
17.250000 0.187500 -32.000000 85 91 98
14.343042 0.155340 -26.511328 86 94 98
17.375000 0.187500 -32.000000 90 97 101
14.318471 0.152866 -26.089172 87 95 96
14.100000 0.150000 -25.600000 85 94 98
14.105919 0.149533 -25.520248 81 92 102
14.200000 0.150000 -25.600000 81 92 106
14.250000 0.150000 -25.600000 81 91 107
14.344828 0.150470 -25.680250 78 90 106
14.350000 0.150000 -25.600000 76 88 102
14.400000 0.150000 -25.600000 74 88 100
14.450000 0.150000 -25.600000 75 89 101
14.500000 0.150000 -25.600000 77 91 102
14.504673 0.149533 -25.520248 76 88 99
15.368421 0.157895 -26.947369 76 89 98
16.449123 0.168421 -28.743860 78 90 98
16.505262 0.168421 -28.743860 77 88 97
-8.492308 0.082051 -21.005129 38 51 52
-12.103321 0.118081 -30.228783 41 52 56
-11.912409 0.116788 -29.897810 42 53 58
-11.854014 0.116788 -29.897810 42 51 57
-11.542857 0.114286 -29.257143 42 51 58
-11.737226 0.116788 -29.897810 41 50 58
-11.594203 0.115942 -29.681160 42 51 60
-11.536232 0.115942 -29.681160 42 51 59
-11.395683 0.115108 -29.467627 43 50 59
-11.297491 0.114695 -29.362007 43 50 60
-11.280576 0.115108 -29.467627 43 50 60
-11.304348 0.115942 -29.681160 42 49 59
-11.411765 0.117647 -30.117647 40 50 59
-11.750000 0.125000 -32.000000 39 51 58
-11.687500 0.125000 -32.000000 37 50 57
-11.625000 0.125000 -32.000000 44 57 64
-11.562500 0.125000 -32.000000 42 55 62
-11.500000 0.125000 -32.000000 41 53 59
-11.437500 0.125000 -32.000000 40 52 58
-11.375000 0.125000 -32.000000 40 52 58
-11.312500 0.125000 -32.000000 40 52 58
-11.250000 0.125000 -32.000000 41 51 58
-11.187500 0.125000 -32.000000 41 50 56
-11.125000 0.125000 -32.000000 45 54 59
-11.062500 0.125000 -32.000000 36 45 52
-11.000000 0.125000 -32.000000 34 41 49
-10.937500 0.125000 -32.000000 47 53 59
-10.875000 0.125000 -32.000000 71 75 68
-10.812500 0.125000 -32.000000 71 75 68
-10.230483 0.118959 -30.453531 94 97 71
-10.095941 0.118081 -30.228783 106 106 64
-10.111525 0.118959 -30.453531 110 106 44
-10.127341 0.119850 -30.681648 116 105 40
-10.067416 0.119850 -30.681648 122 105 36
-10.083019 0.120755 -30.913208 122 103 40
-9.764706 0.117647 -30.117647 122 100 42
-9.670330 0.117216 -30.007326 122 100 41
-9.576642 0.116788 -29.897810 122 103 38
-9.518249 0.116788 -29.897810 119 104 32
-9.459854 0.116788 -29.897810 117 103 29
-9.401460 0.116788 -29.897810 120 104 37
-9.588015 0.119850 -30.681648 121 104 42
-9.492537 0.119403 -30.567163 120 105 41
-9.432836 0.119403 -30.567163 117 103 39
-9.338290 0.118959 -30.453531 116 102 38
-9.244445 0.118519 -30.340740 115 102 38
-9.117647 0.117647 -30.117647 117 105 40
-8.960000 0.116364 -29.789091 119 108 43
-8.837545 0.115523 -29.574007 117 105 40
-8.779783 0.115523 -29.574007 118 107 42
-8.915129 0.118081 -30.228783 118 107 42
-9.375000 0.125000 -32.000000 118 106 41
-9.312500 0.125000 -32.000000 119 105 41
-9.250000 0.125000 -32.000000 119 105 41
-9.187500 0.125000 -32.000000 120 106 43
-9.125000 0.125000 -32.000000 119 105 42
-9.062500 0.125000 -32.000000 118 104 40
-9.000000 0.125000 -32.000000 118 103 37
-8.937500 0.125000 -32.000000 117 101 33
-8.875000 0.125000 -32.000000 118 103 35
-8.812500 0.125000 -32.000000 124 109 42
-8.750000 0.125000 -32.000000 127 112 46
-8.687500 0.125000 -32.000000 125 110 45
-8.625000 0.125000 -32.000000 122 107 41
-8.562500 0.125000 -32.000000 121 106 41
-8.500000 0.125000 -32.000000 123 108 44
-8.437500 0.125000 -32.000000 123 108 45
-8.375000 0.125000 -32.000000 123 108 44
-8.312500 0.125000 -32.000000 123 108 45
-8.250000 0.125000 -32.000000 123 108 46
-8.187500 0.125000 -32.000000 123 107 47
-8.125000 0.125000 -32.000000 124 107 47
-8.062500 0.125000 -32.000000 124 108 48
-8.000000 0.125000 -32.000000 123 110 48
-7.937500 0.125000 -32.000000 118 109 44
-7.875000 0.125000 -32.000000 118 110 45
-7.812500 0.125000 -32.000000 119 113 45
-7.750000 0.125000 -32.000000 117 111 42
-7.687500 0.125000 -32.000000 118 113 42
-6.921986 0.113475 -29.049644 118 112 43
-7.084871 0.118081 -30.228783 126 116 49
-7.051852 0.118519 -30.340740 126 116 49
-6.647887 0.112676 -28.845070 123 111 46
-6.545455 0.111888 -28.643356 125 114 52
-7.250000 0.125000 -32.000000 118 108 49
-7.187500 0.125000 -32.000000 125 116 59
-7.125000 0.125000 -32.000000 118 112 54
-6.364312 0.118959 -30.453531 24 23 11
-1.365539 0.051530 -13.191627 27 19 15
-1.019608 0.039216 -10.039216 29 20 14
-0.985507 0.038647 -9.893720 27 18 10
-0.966184 0.038647 -9.893720 39 29 20
-0.948005 0.038694 -9.905684 34 23 12
-0.938875 0.039120 -10.014670 30 19 8
-1.875000 0.125000 -32.000000 25 22 14
-1.526316 0.105263 -26.947369 24 25 8
-1.562500 0.125000 -32.000000 73 80 37
-1.500000 0.125000 -32.000000 35 42 1
-0.182648 0.073059 -18.703196 18 19 12
-0.144144 0.072072 -18.450451 18 23 12
-0.109589 0.073059 -18.703196 20 26 13
0.565371 0.113074 -28.946997 44 42 20
0.613240 0.111498 -28.543554 55 52 28
0.290030 0.048338 -12.374622 54 48 21
0.309524 0.047619 -12.190476 53 46 18
0.333333 0.047619 -12.190476 59 50 20
0.836237 0.111498 -28.543554 65 54 24
3.312500 0.125000 -32.000000 122 108 38
3.375000 0.125000 -32.000000 125 110 42
3.437500 0.125000 -32.000000 127 111 44
3.500000 0.125000 -32.000000 128 110 44
3.562500 0.125000 -32.000000 126 110 43
3.625000 0.125000 -32.000000 125 109 43
3.687500 0.125000 -32.000000 127 112 46
3.542435 0.118081 -30.228783 125 110 45
3.812500 0.125000 -32.000000 124 110 45
3.875000 0.125000 -32.000000 124 112 46
3.937500 0.125000 -32.000000 124 112 46
3.764706 0.117647 -30.117647 122 111 45
3.586207 0.110345 -28.248276 121 110 45
3.579661 0.108475 -27.769491 120 113 48
3.671233 0.109589 -28.054794 119 113 47
3.738832 0.109966 -28.151203 120 112 46
3.846690 0.111498 -28.543554 121 112 46
3.943662 0.112676 -28.845070 122 113 47
3.958188 0.111498 -28.543554 121 112 45
3.958763 0.109966 -28.151203 120 110 42
4.000000 0.109589 -28.054794 119 107 39
3.933555 0.106312 -27.215946 117 105 38
4.687500 0.125000 -32.000000 116 103 35
4.750000 0.125000 -32.000000 123 108 41
4.812500 0.125000 -32.000000 124 108 41
4.605166 0.118081 -30.228783 132 115 51
4.647059 0.117647 -30.117647 129 111 46
1.531719 0.036909 -9.448673 82 72 16
1.550173 0.036909 -9.448673 45 34 0
1.570439 0.036952 -9.459584 25 16 0
1.588915 0.036952 -9.459584 38 29 4
1.000000 0.020833 -5.333333 32 21 12
0.991693 0.020447 -5.234505 31 23 13
0.999363 0.020395 -5.221160 29 24 13
1.009560 0.020395 -5.221160 20 16 6
1.019758 0.020395 -5.221160 15 11 2
1.030612 0.020408 -5.224490 9 6 0
1.227207 0.023155 -5.927641 68 79 80
1.234319 0.023071 -5.906272 68 81 82
1.243165 0.023022 -5.893525 68 81 82
1.266431 0.022615 -5.789399 72 77 83
1.263452 0.022362 -5.724668 71 78 82
1.267547 0.022238 -5.692842 71 79 83
1.275121 0.022176 -5.677062 72 79 84
1.280000 0.022069 -5.649655 70 78 84
1.289256 0.022039 -5.641873 68 77 83
1.313848 0.022269 -5.700766 65 75 82
7.562500 0.125000 -32.000000 65 77 81
7.625000 0.125000 -32.000000 62 75 80
7.687500 0.125000 -32.000000 64 76 80
7.750000 0.125000 -32.000000 65 77 79
7.812500 0.125000 -32.000000 66 79 80
7.875000 0.125000 -32.000000 65 78 79
7.937500 0.125000 -32.000000 65 76 78
8.000000 0.125000 -32.000000 65 75 76
8.062500 0.125000 -32.000000 68 76 77
8.125000 0.125000 -32.000000 70 78 80
8.187500 0.125000 -32.000000 69 77 79
7.969811 0.120755 -30.913208 69 76 79
8.000000 0.120301 -30.796993 67 74 78
8.000000 0.119403 -30.567163 68 74 80
8.089888 0.119850 -30.681648 68 74 80
8.000000 0.117647 -30.117647 68 74 80
8.058824 0.117647 -30.117647 68 74 80
8.117647 0.117647 -30.117647 67 75 80
8.267658 0.118959 -30.453531 66 75 79
8.175182 0.116788 -29.897810 67 76 79
7.971732 0.113074 -28.946997 67 78 80
7.780822 0.109589 -28.054794 67 80 80
7.576159 0.105960 -27.125828 67 80 80
7.603961 0.105611 -27.036304 67 80 79
7.606557 0.104918 -26.859016 66 79 79
7.659017 0.104918 -26.859016 67 79 79
7.636364 0.103896 -26.597403 68 79 80
7.565495 0.102236 -26.172523 69 80 82
7.520505 0.100946 -25.842272 70 81 83
7.570978 0.100946 -25.842272 70 81 84
7.743590 0.102564 -26.256411 70 81 84
7.845161 0.103226 -26.425806 70 81 84
7.896774 0.103226 -26.425806 69 80 83
7.948387 0.103226 -26.425806 68 79 82
8.101911 0.101911 -26.089172 66 77 81
8.152866 0.101911 -26.089172 65 76 80
8.177778 0.101587 -26.006350 66 77 81
8.100000 0.100000 -25.600000 67 78 82
8.124611 0.099688 -25.520248 67 78 82
8.123839 0.099071 -25.362228 66 78 82
8.250000 0.100000 -25.600000 67 80 83
8.326018 0.100313 -25.680250 66 78 82
8.221539 0.098462 -25.206154 70 81 84
8.072072 0.096096 -24.600601 69 80 83
8.023739 0.094955 -24.308605 71 80 84
8.023599 0.094395 -24.165192 74 84 87
8.167164 0.095522 -24.453732 73 82 86
8.339394 0.096970 -24.824242 71 79 83
8.464831 0.097859 -25.051989 72 81 86
8.795031 0.099379 -25.440994 66 77 80
8.817337 0.099071 -25.362228 66 77 79
8.866873 0.099071 -25.362228 69 80 83
8.916409 0.099071 -25.362228 68 79 81
8.938272 0.098765 -25.283951 68 79 80
9.015480 0.099071 -25.362228 67 78 79
8.888889 0.096096 -24.600601 65 73 75
8.910180 0.095808 -24.526947 68 75 76
8.984985 0.096096 -24.600601 75 82 82
9.060241 0.096386 -24.674698 72 78 79
9.247706 0.097859 -25.051989 71 78 80
9.212121 0.096970 -24.824242 71 79 81
9.260606 0.096970 -24.824242 69 80 81
9.309091 0.096970 -24.824242 69 82 82
9.301205 0.096386 -24.674698 68 83 81
9.293413 0.095808 -24.526947 68 83 80
9.313433 0.095522 -24.453732 69 82 80
9.250737 0.094395 -24.165192 72 82 81
9.268011 0.092219 -23.608068 72 81 78
9.314121 0.092219 -23.608068 68 78 76
9.344353 0.088154 -22.567493 75 87 83
9.388430 0.088154 -22.567493 74 87 80
7.157895 0.060150 -15.398497 79 95 100
9.536160 0.079801 -20.428928 80 96 101
9.576060 0.079801 -20.428928 80 95 100
9.615960 0.079801 -20.428928 76 91 96
9.680000 0.080000 -20.480000 79 93 98
9.720000 0.080000 -20.480000 81 94 101
9.784461 0.080201 -20.531328 78 91 99
9.849246 0.080402 -20.582914 77 90 98
9.989848 0.081218 -20.791878 78 91 100
10.107417 0.081841 -20.951406 80 93 102
10.086076 0.081013 -20.739241 80 91 100
10.101010 0.080808 -20.686869 80 90 98
10.141414 0.080808 -20.686869 79 91 98
12.218182 0.096970 -24.824242 80 92 98
12.571428 0.099379 -25.440994 82 94 99
12.070175 0.093567 -23.953217 82 93 97
10.625641 0.082051 -21.005129 82 93 97
10.558375 0.081218 -20.791878 82 94 98
10.518891 0.080605 -20.634760 83 97 100
10.506266 0.080201 -20.531328 82 94 99
11.298969 0.082474 -21.113401 89 90 100
11.340206 0.082474 -21.113401 84 87 96
11.560209 0.083770 -21.445026 92 101 107
14.545455 0.103896 -26.597403 85 96 97
14.050000 0.100000 -25.600000 86 98 98
14.100000 0.100000 -25.600000 82 94 97
14.150000 0.100000 -25.600000 78 91 100
14.200000 0.100000 -25.600000 77 90 104
14.250000 0.100000 -25.600000 78 90 105
14.300000 0.100000 -25.600000 77 90 106
14.305296 0.099688 -25.520248 75 88 103
14.355140 0.099688 -25.520248 73 88 100
14.404984 0.099688 -25.520248 74 89 101
14.500000 0.100000 -25.600000 75 88 101
14.504673 0.099688 -25.520248 80 87 105
-10.598726 0.050955 -26.089172 37 50 51
-10.547771 0.050955 -26.089172 39 50 52
-10.771242 0.052288 -26.771242 39 50 53
-11.388889 0.055556 -28.444445 39 51 55
-11.255173 0.055172 -28.248276 41 53 58
-11.200000 0.055172 -28.248276 41 51 58
-11.144828 0.055172 -28.248276 42 51 59
-11.089655 0.055172 -28.248276 42 51 59
-10.738256 0.053691 -27.489933 44 53 62
-10.543046 0.052980 -27.125828 45 54 63
-10.524917 0.053156 -27.215946 45 53 63
-11.297491 0.057348 -29.362007 43 50 59
-11.445255 0.058394 -29.897810 43 50 59
-11.386861 0.058394 -29.897810 40 47 58
-11.328467 0.058394 -29.897810 38 47 60
-9.929260 0.051447 -26.340836 39 49 62
-11.812500 0.062500 -32.000000 39 53 61
-11.750000 0.062500 -32.000000 38 51 60
-11.687500 0.062500 -32.000000 37 50 60
-11.625000 0.062500 -32.000000 43 56 66
-11.562500 0.062500 -32.000000 42 53 63
-11.500000 0.062500 -32.000000 40 51 59
-11.437500 0.062500 -32.000000 41 51 58
-11.375000 0.062500 -32.000000 42 52 59
-11.312500 0.062500 -32.000000 43 53 61
-11.125000 0.062500 -32.000000 41 47 55
-11.062500 0.062500 -32.000000 37 42 50
-11.000000 0.062500 -32.000000 50 53 54
-10.937500 0.062500 -32.000000 77 77 68
-10.875000 0.062500 -32.000000 97 96 70
-10.812500 0.062500 -32.000000 97 96 70
-10.750000 0.062500 -32.000000 108 105 57
-10.208955 0.059701 -30.567163 111 107 46
-10.187266 0.059925 -30.681648 111 103 27
-10.203773 0.060377 -30.913208 107 95 20
-10.143396 0.060377 -30.913208 115 98 25
-10.083019 0.060377 -30.913208 116 98 32
-9.764706 0.058824 -30.117647 113 93 33
-9.670330 0.058608 -30.007326 112 93 32
-9.576642 0.058394 -29.897810 118 100 34
-9.518249 0.058394 -29.897810 121 104 32
-9.459854 0.058394 -29.897810 120 102 29
-9.401460 0.058394 -29.897810 123 104 37
-9.377290 0.058608 -30.007326 123 104 40
-9.352942 0.058824 -30.117647 120 102 36
-9.328413 0.059041 -30.228783 118 102 35
-9.235294 0.058824 -30.117647 116 101 34
-9.244445 0.059259 -30.340740 115 102 34
-9.117647 0.058824 -30.117647 115 103 35
-9.058824 0.058824 -30.117647 115 105 36
-8.934306 0.058394 -29.897810 113 102 35
-8.974170 0.059041 -30.228783 115 105 37
-8.948148 0.059259 -30.340740 116 105 38
-9.375000 0.062500 -32.000000 116 104 38
-9.312500 0.062500 -32.000000 118 104 40
-9.250000 0.062500 -32.000000 118 104 40
-9.187500 0.062500 -32.000000 120 106 43
-9.125000 0.062500 -32.000000 120 106 43
-9.062500 0.062500 -32.000000 119 104 41
-9.000000 0.062500 -32.000000 123 108 43
-8.937500 0.062500 -32.000000 119 104 38
-8.875000 0.062500 -32.000000 119 104 39
-8.812500 0.062500 -32.000000 124 109 44
-8.750000 0.062500 -32.000000 126 111 47
-8.687500 0.062500 -32.000000 123 108 44
-8.625000 0.062500 -32.000000 123 108 44
-8.562500 0.062500 -32.000000 126 111 47
-8.500000 0.062500 -32.000000 125 108 46
-8.437500 0.062500 -32.000000 126 109 47
-8.375000 0.062500 -32.000000 127 110 48
-8.312500 0.062500 -32.000000 128 111 49
-8.250000 0.062500 -32.000000 126 110 49
-8.187500 0.062500 -32.000000 126 108 49
-8.125000 0.062500 -32.000000 127 108 49
-8.062500 0.062500 -32.000000 126 109 48
-8.000000 0.062500 -32.000000 126 114 49
-7.937500 0.062500 -32.000000 120 112 46
-7.875000 0.062500 -32.000000 122 114 49
-7.812500 0.062500 -32.000000 120 113 49
-7.750000 0.062500 -32.000000 115 110 44
-7.687500 0.062500 -32.000000 116 111 45
-7.500000 0.062500 -32.000000 119 109 41
-7.437500 0.062500 -32.000000 119 109 41
-6.992593 0.059259 -30.340740 118 106 40
-6.933333 0.059259 -30.340740 122 112 49
-7.187500 0.062500 -32.000000 127 119 66
-7.125000 0.062500 -32.000000 111 106 56
-7.062500 0.062500 -32.000000 85 83 35
-1.020859 0.019632 -10.051534 37 23 22
-0.991495 0.019441 -9.953828 37 22 19
-0.972053 0.019441 -9.953828 32 17 12
-0.952612 0.019441 -9.953828 33 17 11
-0.937729 0.019536 -10.002442 28 13 6
-1.638225 0.054608 -27.959044 26 22 12
-1.511401 0.052117 -26.684038 32 34 13
-1.459283 0.052117 -26.684038 45 52 18
-1.407166 0.052117 -26.684038 61 69 29
-1.434483 0.055172 -28.248276 73 81 33
-1.379310 0.055172 -28.248276 66 74 27
-1.386282 0.057762 -29.574007 33 41 0
-0.219178 0.036530 -18.703196 19 20 15
-0.157791 0.031558 -16.157791 18 21 13
-0.146119 0.036530 -18.703196 19 24 13
-0.187500 0.062500 -32.000000 22 29 15
-0.125000 0.062500 -32.000000 23 33 17
0.613240 0.055749 -28.543554 53 48 19
0.290469 0.024206 -12.393343 56 48 17
0.306785 0.023599 -12.082596 57 48 16
0.327485 0.023392 -11.976608 62 52 19
0.353982 0.023599 -12.082596 66 56 23
3.250000 0.062500 -32.000000 125 111 41
3.312500 0.062500 -32.000000 124 109 41
3.375000 0.062500 -32.000000 126 110 42
3.437500 0.062500 -32.000000 127 111 44
3.500000 0.062500 -32.000000 126 108 43
3.562500 0.062500 -32.000000 124 106 40
3.424354 0.059041 -30.228783 124 106 40
3.483395 0.059041 -30.228783 126 109 44
3.529412 0.058824 -30.117647 124 109 44
3.683019 0.060377 -30.913208 125 110 45
3.875000 0.062500 -32.000000 126 113 47
3.937500 0.062500 -32.000000 125 113 47
3.820895 0.059701 -30.567163 123 113 46
3.809524 0.058608 -30.007326 123 113 46
3.812274 0.057762 -29.574007 122 112 51
3.696552 0.055172 -28.248276 120 110 50
3.777778 0.055556 -28.444445 120 109 47
3.846690 0.055749 -28.543554 121 110 46
3.888889 0.055556 -28.444445 123 113 46
3.944444 0.055556 -28.444445 123 113 44
3.958763 0.054983 -28.151203 121 111 42
4.013746 0.054983 -28.151203 120 108 39
